# .PCD v0.7 - Point Cloud Data file format
VERSION 0.7
FIELDS x y z
SIZE 4 4 4
TYPE F F F
COUNT 1 1 1
WIDTH 397
HEIGHT 1
VIEWPOINT 0 0 0 1 0 0 0
POINTS 397
DATA ascii
0.25542161 0.11349 0.040748999
0.2482553 0.11425 0.041273002
0.23933899 0.11338 0.040916
0.27642199 0.11499 0.032623
0.27454501 0.12284 0.024255
0.28413701 0.11316 0.02507
0.27886 0.11773 0.027037
0.27675 0.12234 0.017604999
0.28575 0.1123 0.019109
0.265982 0.12307 0.031279001
0.2579813 0.12438 0.032798
0.26810101 0.11674 0.035493001
0.25866869 0.11758 0.037537999
0.26808 0.12536 0.026132001
0.25808609 0.12865999 0.02619
0.27274999 0.12146 0.029671
0.2481311 0.12456 0.033183999
0.238832 0.12376 0.032519002
0.24799369 0.11937 0.038104001
0.23768 0.11816 0.037427001
0.24833409 0.12879001 0.026782
0.238029 0.12723 0.026218999
0.26648399 0.12828 0.01928
0.25709209 0.13102999 0.018415
0.25146151 0.13134 0.017095
0.23617899 0.12886 0.019265
0.23275 0.11202 0.040077001
0.17544401 0.13415 0.051045999
0.184029 0.14396 0.04109
0.178075 0.14545 0.043265998
0.18449 0.13624001 0.042195
0.17888799 0.13767 0.047518
0.170472 0.13416 0.051194001
0.169579 0.14428 0.042792998
0.167328 0.13779999 0.046806
0.16187 0.13514 0.042222001
0.18367499 0.12347 0.050728999
0.17760101 0.12661999 0.052363999
0.183909 0.11973 0.050880998
0.17798799 0.11811 0.052294999
0.187567 0.12627 0.043830998
0.181674 0.12998 0.048875
0.18690601 0.11811 0.044399001
0.178699 0.11322 0.048409998
0.169485 0.12740999 0.052034002
0.171821 0.1191 0.051116001
0.164784 0.12609001 0.049001001
0.16046199 0.12621 0.044589002
0.16734099 0.11661 0.047970001
0.160464 0.11784 0.044569999
0.1935 0.15248001 0.030131999
0.194483 0.15312999 0.026915001
0.21375 0.17197999 0.00017688
0.21224999 0.17197999 0.00022189
0.21375 0.16935 0.00051957997
0.216824 0.15711001 0.0018682
0.19808701 0.15449999 0.011273
0.20829299 0.16642 0.0030522
0.200532 0.16414 0.0041987998
0.20810801 0.15669 0.0054879002
0.19877601 0.15877999 0.0080282995
0.187583 0.15317 0.033160999
0.17833 0.15319 0.033700999
0.187457 0.15524 0.027404999
0.17789 0.15549999 0.027644999
0.17133701 0.15268999 0.032267999
0.168431 0.15374 0.026085
0.16275001 0.1523 0.022135001
0.19275001 0.15568 0.010325
0.192112 0.1575 0.0073225
0.16150001 0.15222999 0.019215001
0.19387099 0.14616001 0.030850001
0.19529501 0.13555001 0.032127
0.195856 0.14714 0.026275
0.203375 0.13234 0.021909
0.19861001 0.13694 0.025787
0.231722 0.12238 0.030773001
0.22834399 0.11643 0.035209
0.218079 0.11566 0.032850999
0.228652 0.12421 0.024561999
0.21759 0.12349 0.023293
0.22513101 0.12094 0.028744999
0.218253 0.12039 0.028229
0.197088 0.12685999 0.034968
0.20832801 0.11564 0.032997999
0.197963 0.1168 0.034582
0.207505 0.12488 0.024081999
0.20205399 0.12736 0.028108001
0.207579 0.12035 0.028633
0.20233899 0.12024 0.028871
0.214036 0.1513 0.00053949998
0.199402 0.14740001 0.013881
0.20362499 0.13293 0.018289
0.200875 0.13856 0.016269
0.20702401 0.14915 0.0054003
0.20203499 0.14658999 0.0086783003
0.227074 0.12630001 0.018076999
0.218417 0.1259 0.017804001
0.208267 0.12796 0.016650001
0.188518 0.14698 0.036168002
0.178271 0.15026 0.038327999
0.189474 0.13680001 0.035999
0.167381 0.14823 0.035955001
0.162176 0.14449 0.033778999
0.161 0.13828 0.037774
0.16433799 0.15095 0.028208001
0.16039899 0.14725 0.025869001
0.159319 0.13748001 0.02369
0.191278 0.12924001 0.038991999
0.189925 0.11512 0.037684999
0.158188 0.12767 0.038702998
0.158273 0.11657 0.039618999
0.156836 0.12721001 0.025211001
0.15606201 0.12067 0.024398999
0.158417 0.14522 0.019859999
0.159071 0.13666999 0.019817
0.15690601 0.11635 0.018959001
0.274948 0.10286 0.041418001
0.2836 0.092626996 0.040463001
0.27741998 0.096386001 0.043311998
0.28391999 0.086911 0.041034002
0.27815601 0.086837001 0.045084
0.28380999 0.078603998 0.040854
0.27812499 0.076874003 0.045058999
0.26449999 0.093278997 0.05088
0.25748169 0.094729997 0.052315
0.267407 0.10535 0.043138999
0.25795361 0.10633 0.042968001
0.268511 0.097194001 0.047253001
0.2586436 0.099322997 0.048078999
0.2479803 0.095697999 0.053906001
0.238554 0.095169 0.053862002
0.248125 0.10691 0.043455001
0.238125 0.10688 0.043019
0.2482378 0.10071 0.046647999
0.23750199 0.10008 0.045915999
0.266381 0.085894004 0.051642001
0.25811669 0.086910002 0.055227999
0.26764399 0.076954998 0.052372001
0.25812501 0.076853 0.055535998
0.27057499 0.088169001 0.049006
0.27244499 0.075721003 0.049563002
0.2482069 0.086848997 0.056843001
0.238057 0.086770996 0.057009
0.2480433 0.076862998 0.057803001
0.238125 0.076963998 0.057022002
0.28325 0.067541003 0.040033001
0.27814901 0.066829003 0.042952999
0.276761 0.057829 0.042587999
0.27357101 0.047460001 0.040428001
0.26583201 0.067418002 0.051639002
0.25804311 0.066901997 0.055006001
0.26398399 0.058885999 0.050416
0.25809729 0.056887999 0.052949999
0.27056599 0.065958001 0.048300002
0.268594 0.056538999 0.047878999
0.26287499 0.052652001 0.049688999
0.2482148 0.066711999 0.056503002
0.238215 0.066885002 0.055015001
0.248125 0.056597002 0.054409999
0.23816 0.057054002 0.052714001
0.234312 0.052469 0.049614999
0.2566154 0.049929999 0.051259
0.26808801 0.046654999 0.043320999
0.25884101 0.045437001 0.046622999
0.26768801 0.039719 0.043083999
0.25812501 0.039515998 0.045373999
0.2483889 0.049844 0.051720001
0.23755001 0.046773002 0.050903
0.236149 0.039778002 0.051036
0.2479706 0.044874001 0.047587
0.23834699 0.046859998 0.048661001
0.2481389 0.039606001 0.047339
0.2408455 0.039579999 0.049415
0.293661 0.094028004 0.02252
0.28464201 0.10473 0.031831
0.27834299 0.1072 0.036339
0.28633898 0.096551999 0.034843002
0.28173301 0.099372 0.038504999
0.286998 0.10668 0.026781
0.282875 0.11108 0.029589999
0.29093799 0.097131997 0.026663
0.294153 0.086465999 0.024241
0.30375001 0.072221003 0.020429
0.29516 0.076573998 0.023593999
0.28803599 0.086663 0.035459001
0.28786099 0.076624997 0.035657998
0.292216 0.087237 0.028254
0.292355 0.076747 0.028580001
0.29387501 0.096228004 0.015269
0.294375 0.096796997 0.0086444998
0.289545 0.1061 0.017655
0.29231301 0.10009 0.017237
0.29540598 0.087416999 0.015604
0.30511799 0.072639003 0.017944001
0.298722 0.073760003 0.017433999
0.295917 0.086297996 0.0094210999
0.26943299 0.1096 0.039062999
0.26097 0.11058 0.039648
0.296657 0.057153001 0.031337
0.306079 0.066335 0.024122
0.298168 0.06701 0.026298
0.30605501 0.057252999 0.024901999
0.30116299 0.056662001 0.029137
0.28691399 0.067032002 0.036122002
0.28299999 0.064719997 0.039903
0.28800401 0.056506999 0.033119
0.28062901 0.054915 0.038484
0.291875 0.066382997 0.028356999
0.29143399 0.060880002 0.029632
0.29492101 0.049904 0.031243
0.30463499 0.050167002 0.022043999
0.29828 0.047370002 0.025845001
0.28797299 0.048347 0.031456001
0.27805299 0.047061 0.035990998
0.27559501 0.040346 0.034150001
0.28845501 0.043508999 0.028278001
0.282031 0.043278001 0.029253
0.28658101 0.040335 0.025144
0.28018999 0.039321002 0.026846999
0.309333 0.067891002 0.017361
0.2965 0.071451999 0.019710001
0.309562 0.057746999 0.018340001
0.30563599 0.049199 0.019173
0.30050001 0.045063999 0.019181
0.273 0.047803 0.039776001
0.27238899 0.038860001 0.038795002
0.230455 0.093900003 0.052205
0.22853801 0.10618 0.042059001
0.218973 0.10395 0.041228
0.227479 0.097723 0.045194
0.218142 0.097025998 0.043878
0.206738 0.10412 0.040890999
0.197846 0.10404 0.040972002
0.208125 0.096943997 0.042424001
0.198081 0.096966997 0.043563001
0.22851101 0.086672001 0.054767001
0.223 0.083086997 0.050283998
0.22893 0.077248998 0.054365002
0.22398899 0.089634001 0.048981
0.218107 0.087035 0.044169001
0.22437499 0.074891999 0.047102001
0.21803001 0.076899998 0.042176999
0.208176 0.086953998 0.043295
0.198175 0.086843997 0.044932999
0.20808201 0.076728001 0.042564001
0.19815099 0.076876998 0.042992
0.18866101 0.10393 0.041164
0.17732799 0.10976 0.044294
0.188216 0.096825004 0.043327
0.179942 0.096202999 0.041397002
0.169561 0.11091 0.044342998
0.18807301 0.086723998 0.044520002
0.179656 0.087352 0.041908
0.18859001 0.077489004 0.042178001
0.181421 0.080144003 0.041023999
0.230955 0.067731999 0.052388001
0.23225799 0.058908999 0.050809
0.22645199 0.066381998 0.045226
0.21601 0.067795001 0.040929001
0.22831 0.056549001 0.045164
0.213889 0.060706001 0.040406998
0.20876899 0.066950999 0.041391999
0.20141199 0.070955999 0.040357001
0.2097 0.059464999 0.040445998
0.22808 0.044964999 0.052258
0.22081301 0.043584999 0.051088002
0.228081 0.039825998 0.053521
0.219669 0.039749 0.052133001
0.228002 0.049846999 0.046725001
0.218089 0.046847999 0.045187
0.214724 0.039753001 0.047529001
0.207984 0.044822998 0.041593999
0.19806001 0.044707 0.043497998
0.20807201 0.039326999 0.043582
0.19814301 0.039252002 0.046211999
0.190547 0.044240002 0.042862002
0.189235 0.039087001 0.044362999
0.22572699 0.11038 0.039129
0.217621 0.10878 0.037951998
0.208848 0.10853 0.037969001
0.198302 0.10906 0.038258001
0.18790901 0.10877 0.038274001
0.17834499 0.10596 0.037516002
0.175366 0.097746 0.038346998
0.17087999 0.10508 0.032308001
0.169797 0.096758001 0.033592001
0.16622001 0.10568 0.025985001
0.162708 0.10314 0.020825
0.16479 0.097079001 0.02781
0.161918 0.096455999 0.022985
0.17484 0.086039998 0.038816001
0.185423 0.073454998 0.038970001
0.17772099 0.076416001 0.036412999
0.17362499 0.072563 0.028729999
0.16996899 0.087076001 0.034290001
0.17108101 0.079370998 0.032476999
0.16516599 0.086686 0.026974
0.162109 0.089233004 0.022611
0.168952 0.077169001 0.025829
0.163607 0.10784 0.018634999
0.162328 0.10492 0.017263999
0.160667 0.098483004 0.01761
0.163625 0.083067 0.018607
0.16082099 0.089185998 0.018947
0.16712099 0.076109 0.017794
0.16749999 0.074674003 0.0071175001
0.223563 0.064140998 0.039321002
0.219965 0.066129997 0.038942002
0.223869 0.056531001 0.038881999
0.218336 0.056657001 0.037742
0.204284 0.064540997 0.039166
0.19804099 0.066868998 0.036733001
0.207443 0.055544998 0.039026
0.20059401 0.056892 0.034343999
0.1945 0.062391002 0.029498
0.19624999 0.058573999 0.026312999
0.21594 0.050136998 0.038577002
0.208259 0.049589999 0.03929
0.19902501 0.049435001 0.036965001
0.197 0.051065002 0.029208999
0.19585499 0.054568 0.012257
0.194152 0.054170001 0.0083272001
0.19515601 0.049295001 0.011462
0.19385 0.050618999 0.0092928996
0.188549 0.068256997 0.035376001
0.18027499 0.069958001 0.032788001
0.187177 0.063322 0.026885999
0.17896301 0.066786997 0.025227999
0.189143 0.060568001 0.022643
0.183 0.061558001 0.020109
0.1718 0.071278997 0.021032
0.187884 0.045145001 0.037802
0.18452701 0.039512999 0.037964001
0.18275 0.037420001 0.033413
0.17729801 0.065008 0.018701
0.18855 0.059165001 0.018731
0.1825 0.061478999 0.019221
0.192589 0.054113999 0.0038256999
0.17077801 0.070653997 0.017735001
0.187527 0.044679999 0.01111
0.18275 0.042257998 0.010414
0.18361101 0.040514998 0.01316
0.181641 0.038502 0.011958
0.188619 0.047479998 0.0076069999
0.18144101 0.043549001 0.0081575997
0.17907101 0.039829999 0.0085888002
0.233375 0.18375 -0.019734999
0.23480201 0.17471001 -0.018867999
0.234056 0.16264001 -0.0091036996
0.234023 0.16069999 -0.0088072
0.23674899 0.16708 -0.015264
0.235708 0.16098 -0.011252
0.23601399 0.184 -0.023739001
0.23836701 0.17699 -0.023349
0.2408971 0.16988 -0.021457
0.224438 0.18273 -0.0096247001
0.22275001 0.18254 -0.0094384002
0.224264 0.17948 -0.0089653004
0.218784 0.17589 -0.0051154001
0.229601 0.18449999 -0.014943
0.228661 0.17645 -0.014566
0.222875 0.17234001 -0.010156
0.21061 0.1733 -0.0023574999
0.22712401 0.16406 -0.0078103002
0.218403 0.16651 -0.0049291998
0.2274 0.15911999 -0.0037990001
0.21962801 0.15767001 -0.0012672
0.22884201 0.16848999 -0.012383
0.223 0.17120001 -0.01022
0.208281 0.16813 -0.00074957998
0.20175 0.16748001 -0.00015191
0.21275 0.16147 -7.2627998e-05
0.18357101 0.15783 -0.0085672997
0.178716 0.15839 -0.005998
0.184021 0.16288 -0.017792
0.178377 0.16384 -0.015760001
0.18393201 0.16051 -0.013567
0.17669299 0.16049001 -0.011832
0.17300001 0.16204 -0.019241
0.172821 0.15851 -0.01495
0.17630899 0.17286 -0.037944
0.17245001 0.17220999 -0.039175
0.18407899 0.16586 -0.025022
0.17790499 0.16784 -0.024724999
0.184 0.16808 -0.030916
0.176552 0.17050999 -0.032044999
0.17223001 0.16434 -0.025938001
0.17210701 0.16039 -0.021299001
0.17178899 0.169 -0.034566
0.215333 0.15131 -0.00071028998
0.183883 0.17353 -0.047453001
0.17801401 0.17612 -0.045384001
0.18075 0.182 -0.055025999
0.18500799 0.17802 -0.054644998
0.18006501 0.17983 -0.051987998
0.17207 0.17516001 -0.044399999
